-17.310576,7.533482,4.810909
-27.583800,-2.266274,18.519014
-27.500500,-2.403218,17.931392
-24.508323,-14.611888,13.499461
-27.849326,-0.286629,20.971880
-23.850141,1.516956,7.152517
-9.344293,3.584171,1.586908
-30.798623,-20.569978,10.690023
-34.073350,8.633401,22.421494
-13.888119,5.996118,3.294630
-32.897228,4.714899,25.852654
-27.519141,-1.842028,20.654432
-28.492495,-0.685251,19.284062
-27.694642,-2.518493,19.980825
-30.473515,-23.423167,6.099181
-27.658305,-14.854350,14.813451
-25.047096,-15.378667,6.284224
-32.623200,-5.392957,12.337016
-31.670593,0.465750,14.740799
-38.224506,-21.261062,7.920675
-25.183611,-6.695443,10.139466
-30.203006,-20.730770,10.507201
-22.071503,-16.648597,8.687566
-30.731277,3.444650,20.329177
-26.785874,-14.537000,9.392458
-26.921531,0.288524,18.235385
-12.085407,5.148643,2.469487
-12.169824,5.488767,2.093883
-28.970327,-3.598142,14.927146
-10.789296,2.365035,-0.002178
-28.694017,2.239447,19.639446
-13.934108,4.936053,3.287305
-25.590858,1.985683,11.625965
-31.561558,7.320754,21.617178
-25.629971,4.074702,10.958417
-11.628444,3.831465,2.452417
-28.385591,-2.653412,16.924503
-26.651874,-1.477437,20.981418
-35.027573,-13.354078,1.997914
-26.842335,-0.198732,8.410160
-28.234539,-9.735931,11.377627
-7.697323,2.575380,0.963825
-27.390651,2.066595,12.769798
-8.174032,2.562268,0.688922
-20.331524,8.931914,6.537338
-27.787297,-3.355201,17.658547
-24.068812,2.222722,7.741541
-24.903276,-14.176448,8.934252
-29.542220,-4.909146,13.911160
-30.275549,-20.386158,10.851616
-14.933826,4.911776,4.781621
-24.924074,-0.165395,20.266115
-24.000538,-18.437098,14.733848
-26.167106,1.994080,9.225362
-27.840811,-1.175407,20.715017
-7.268254,2.441651,0.830933
-24.441749,-6.320166,20.468859
-27.864238,5.697484,16.973625
-10.112479,3.103396,1.810219
-9.197161,2.574053,0.522111
-17.765109,3.117868,4.732270
-31.570396,7.580647,21.323666
-10.866160,3.582270,2.111629
-26.724493,-14.337766,14.814699
-29.910102,-23.501238,6.224133
-37.465094,-19.714332,8.043493
-12.729703,4.271043,2.880644
-30.581069,7.415067,18.600537
-28.233759,-3.376593,18.292802
-22.574474,-11.564324,16.679258
-14.343910,4.679801,4.402379
-24.237148,-13.954662,9.109235
-13.547531,1.459721,0.248256
-21.672783,-3.760080,12.124106
-12.970267,2.726654,1.438012
-13.437123,4.376428,3.771550
-25.641852,4.173292,16.135233
-29.734247,2.982802,21.034810
-23.644443,-14.515679,9.148469
-33.409744,-24.486397,9.741744
-36.571981,-5.272986,11.016947
-10.267764,2.375158,0.057542
-25.848964,6.630026,13.333507
-33.076304,8.043025,24.060659
-40.566388,-16.669633,2.447913
-28.914320,-16.355720,12.023569
-27.262843,3.980089,12.064407
-9.193432,2.822593,1.407212
-27.187925,-3.372281,11.869557
-23.208013,2.252664,7.224947
-32.115069,6.267770,24.682848
-29.326437,-2.162767,13.737306
-29.435005,2.917388,23.820341
-37.529162,-21.497092,8.516422
-27.236749,0.820673,22.408101
-32.628566,-5.677339,16.291577
-37.375740,-14.860613,2.118031
-31.830719,-14.569159,10.467779
-28.984076,5.231391,18.468372
-27.085564,1.589818,9.138384
-27.564170,-2.166680,19.609348
-27.766834,-2.753283,16.946032
-27.663842,0.205241,19.056886
-27.994466,-1.972145,12.143386
-34.642615,9.280533,21.770195
-14.042962,4.605290,4.113587
-16.712123,6.028560,5.040207
-66.049058,-32.447220,12.208633
-30.422781,-5.195083,17.593417
-42.817717,-28.894028,6.527736
-15.645905,5.199642,5.100015
-24.569856,-14.923901,13.739945
-27.210753,1.178545,22.285675
-28.119736,-15.775726,15.140353
-16.393925,4.884998,6.082724
-22.708240,-6.710503,21.038988
-49.305593,-21.792109,7.579659
-31.299974,5.452640,21.352252
-33.573430,5.210583,26.288824
-27.845991,1.685091,22.736960
-26.281052,-16.596873,8.612226
-26.030660,-2.298530,13.897292
-41.625358,6.301126,21.485096
-14.640146,5.236471,3.800545
-27.336446,-1.101757,19.859264
-9.394144,3.881796,1.563039
-8.208951,2.604910,0.620484
-26.092611,-16.459343,9.538305
-26.073784,6.435282,13.541786
-25.869644,4.788545,15.875416
-25.727632,-0.024769,7.099242
-12.677698,3.427891,2.551569
-28.231639,-1.985760,14.268147
-32.645623,-24.719406,9.141776
-12.110537,3.704365,2.780249
-10.967322,4.592658,2.039833
-33.466027,8.563280,22.482740
-10.104709,4.034215,1.792518
-26.038851,-0.324391,7.276006
-29.075593,2.539767,19.438791
-29.723776,-19.669406,9.659327
-27.248297,-2.046367,18.580765
-13.307598,4.090284,3.646497
-28.317024,-10.217219,11.118669
-21.546026,-16.491684,9.121610
-26.450046,7.035216,13.841346
-32.454495,8.005011,22.257053
-31.451246,-13.864840,10.862629
-26.347696,-1.215415,16.958454
-22.413970,-16.256725,9.388638
-29.523547,3.198339,18.402897
-11.597475,2.555914,0.912159
-25.943800,-16.279598,11.256521
-26.715592,4.512250,11.970559
-9.944222,2.641127,0.539335
-8.269581,2.719171,1.140879
-31.262334,-20.398878,6.293834
-24.698267,1.788767,10.847915
-24.984498,0.664789,6.589908
-13.320666,2.826275,1.581896
-22.892088,-3.276378,5.970703
-28.442678,-1.572877,15.454408
-7.800644,2.815815,1.176311
-25.257917,1.763148,16.147396
-20.236861,6.195220,8.328140
-26.611907,4.155897,11.756625
-25.635373,1.171275,7.707462
-22.769882,10.248706,10.438711
-8.617638,2.367912,1.009057
-32.230452,-15.856428,9.454188
-34.210357,-18.132142,8.752554
-21.305317,9.574738,7.786468
-19.284795,8.351072,5.915040
-23.672191,-17.832571,13.179328
-16.694263,3.091890,4.468764
-30.078578,-23.257369,7.220967
-30.024228,-19.998574,9.327540
-29.427419,-19.876245,11.125140
-25.859853,-6.049340,10.388672
-25.128378,3.938592,15.560733
-32.147372,-24.726793,8.871738
-30.878192,3.267317,17.712602
-31.947910,-21.613299,6.518651
-15.230769,5.003058,5.155534
-26.362268,-0.135914,20.510937
-27.924859,-18.001493,10.195642
-28.930796,-2.182441,15.506888
-27.039534,-17.321849,6.806307
-27.412730,0.732211,22.005911
-9.058262,2.313489,0.703397
-15.751540,5.671925,4.553317
-12.717962,3.907779,3.218534
-63.060814,-29.897562,11.597994
-28.967586,2.583024,23.238383
-27.894702,-3.439070,11.552655
-28.354132,-0.767823,19.621962
-8.710286,3.204034,1.400035
-11.564007,2.421637,0.814664
-22.314407,-16.827147,8.332466
-24.950397,-18.506665,14.353938
-32.058606,4.809093,23.117561
-18.392254,6.966279,7.015637
-19.663441,8.565492,7.390895
-9.901736,3.458499,1.822101
-14.068653,1.343688,0.197929
-8.614609,2.657093,1.160608
-26.326014,0.266360,17.364748
-25.810613,-14.255109,9.354967
-19.554707,6.078935,7.910356
-16.347987,3.369316,2.549492
-27.880220,-4.358745,12.594641
-7.687558,2.444148,0.956341
-27.951323,0.610223,9.912384
-23.892546,-14.053360,8.877545
-25.182621,2.109629,11.051479
-31.558105,4.842432,20.724780
-28.426007,0.010342,21.486720
-30.478654,-23.107415,6.498905
-25.635725,-18.304947,14.301727
-10.468305,2.415936,0.119096
-47.745461,-20.292700,7.310827
-9.188378,3.599632,1.555257
-29.606526,-1.974420,14.128651
-25.143004,-7.095648,10.092206
-26.189045,-16.254402,5.823840
-25.119174,-18.896785,8.177518
-27.983784,0.427889,19.558196
-29.202748,-3.786256,19.142843
-26.402904,-18.676249,14.998261
-10.505399,3.210022,1.988696
-9.973679,3.393655,1.797544
-21.826999,0.379876,3.727515
-31.391221,8.684754,17.748272
-12.406761,3.946228,3.071253
-32.764229,7.175741,20.060500
-27.981446,-18.293848,12.096710
-13.325698,1.401133,0.170152
-16.438468,5.131038,5.952423
-28.714553,-3.413347,19.439277
-33.512450,-17.015933,8.980314
-22.219661,-16.375357,9.355305
-31.669185,6.377714,22.117368
-13.032258,2.530941,-0.619398
-71.447559,-35.011162,12.056041
-9.858325,3.503359,1.741058
-12.167554,2.550729,0.936881
-28.407399,-19.574413,11.365257
-26.736472,-14.652915,9.966414
-8.389238,2.571559,0.733630
-23.925767,1.773432,7.451159
-12.320501,3.431930,2.231112
-28.736517,6.344754,18.546815
-24.528395,-14.805372,12.682032
-14.190712,5.031545,3.532815
-27.437749,-3.815849,10.046210
-29.671905,-2.284958,14.273697
-23.408660,-3.391212,6.956027
-26.692796,-0.677648,7.431709
-10.252429,3.842090,1.845715
-28.746063,5.524306,18.338163
-27.317032,-0.889798,7.881856
-26.222737,0.339835,7.646547
-9.457382,2.439528,0.487665
-8.553757,2.794062,1.220662
-31.159477,3.682774,19.642647
-28.485140,-1.387312,7.895646
-16.979036,6.318153,5.173015
-28.033454,-15.956129,11.126253
-27.961749,-3.449164,15.176741
-12.938566,4.257042,3.258835
-30.926724,6.831002,21.269902
-27.315487,-17.598135,11.369137
-16.672410,5.649612,5.615838
-30.459198,-2.303042,17.028993
-19.812876,5.704362,7.996767
-21.223602,-10.257294,17.430687
-31.993299,4.183188,20.858867
-26.381514,-19.112104,9.628592
-27.941108,-19.680256,9.945649
-19.365638,8.345113,6.350750
-9.785297,2.384722,0.159337
-28.643411,-2.267154,13.104125
-20.225517,-4.320537,16.427604
-23.823319,1.057818,6.542075
-28.284662,2.101645,23.168494
-9.086023,2.230038,0.573015
-8.080276,2.475133,0.955650
-8.065705,2.511040,1.015066
-27.112513,-1.197409,8.301545
-25.671256,-19.066923,15.124253
-23.180768,1.651004,6.774047
-27.827725,2.062782,18.120620
-9.255722,2.484518,1.175281
-21.207239,9.491792,7.473419
-11.612644,3.432720,2.360534
-27.190264,-3.054798,16.926801
-11.355638,3.818360,2.284620
-25.255501,-12.714737,15.719113
-26.773102,3.927268,16.825145
-26.879559,6.843645,14.176907
-9.042728,2.727691,0.421013
-17.813202,6.469548,5.912724
-31.786500,3.714066,15.194208
-13.122526,2.646264,1.356161
-28.243899,-18.103208,8.325633
-11.748791,4.271044,2.396001
-28.269280,-0.738755,20.175768
-24.750491,-12.550081,15.980795
-23.823448,-14.035003,9.401077
-10.388280,3.808559,1.884267
-38.483138,5.116698,20.081421
-28.706346,-19.839148,11.035650
-31.119368,3.916631,20.738843
-8.726353,2.718094,1.229323
-26.023810,0.238842,7.130509
-15.403596,3.232193,2.217005
-28.715956,-5.694889,11.110780
-24.599731,-14.976991,13.480275
-27.188772,-1.043197,8.084696
-24.461148,-3.224262,6.915271
-27.752508,-1.756195,19.792304
-38.421041,4.613005,19.579839
-28.085722,2.800568,16.832647
-27.329172,-19.604132,9.451386
-31.355396,6.590174,23.534999
-11.477097,2.551480,-0.610286
-23.740169,-2.724674,6.552669
-26.479499,-16.013479,5.945381
-30.146711,3.955650,18.309362
-27.939611,-1.700828,14.853697
-24.839806,4.344303,10.558807
-27.730522,0.716461,19.032895
-28.190453,-2.251972,12.391220
-28.596334,6.742364,16.938397
-6.801210,2.356429,0.824003
-7.593359,2.469603,0.512442
-35.084506,-24.811840,6.103775
-11.855263,3.506356,2.503478
-23.970142,-18.063469,14.586936
-9.395502,2.782088,1.428010
-22.827130,4.176706,9.464814
-23.960260,0.659374,15.555329
-13.772189,4.743656,3.256611
-13.248540,5.650843,2.977246
-29.118521,-19.752749,11.908619
-30.691004,7.485375,20.103087
-27.758109,0.311479,20.402129
-13.795218,4.662089,3.780265
-26.462079,-16.814327,10.104651
-31.857800,3.634015,20.553784
-33.040831,-22.824018,6.515863
-34.230598,-4.454105,9.941972
-23.834608,-12.133604,16.163425
-6.546048,2.346318,0.839130
-25.147580,0.838802,16.598694
-25.202564,-16.052479,13.560688
-9.413963,2.618332,1.353088
-12.740647,1.490262,0.508800
-25.610313,2.595519,8.694579
-36.985697,-14.131691,3.212114
-32.029110,-24.173277,7.764722
-29.286190,0.322619,10.324131
-22.427099,-6.294019,20.430031
-27.730884,-17.763726,7.836174
-28.917726,-3.997243,18.587174
-25.522437,-3.194975,14.547053
-27.880760,-17.994780,10.491792
-26.492227,-2.572250,10.115858
-12.508921,3.454087,2.638382
-9.420014,4.012124,1.635102
-25.840922,-16.775371,13.915715
-27.766192,2.800108,12.796447
-9.750093,2.662558,0.105748
-27.932144,7.215212,14.992012
-30.618603,0.272636,11.130390
-26.420660,-3.146090,12.263884
-30.242428,6.056617,20.491964
-25.266062,-0.971120,15.904980
-28.992632,-19.264930,11.788357
-24.628733,1.368861,10.564458
-28.339006,-19.030944,12.020024
-29.266521,-2.369731,17.492057
-25.042902,-5.959249,10.364565
-25.372747,-6.387676,10.022927
-28.953614,-0.866769,18.892745
-29.711832,-19.441540,8.813429
-27.522749,-17.509542,8.576543
-13.290424,1.358801,0.077705
-9.747457,2.880352,1.565895
-27.447865,-17.533258,7.249755
-27.913733,-1.542949,20.443841
-12.095545,3.231655,2.643105
-9.373398,2.446130,0.152390
-31.871319,5.497996,22.204597
-11.990466,1.575151,0.498915
-14.476758,5.340934,3.831111
-39.128774,-16.042849,1.844071
-42.224647,-22.572394,8.090808
-11.615846,4.423479,2.399972
-31.285158,6.943087,23.039615
-9.024861,2.195788,0.682163
-33.503708,8.409314,20.602163
-23.309442,2.567810,9.463084
12.161421,4.374938,-11.981199
-27.447002,-1.480499,9.076940
-13.115193,5.638236,2.834920
-25.558226,-13.621463,14.714056
-11.681547,2.404201,-0.174582
-26.262257,-16.547687,7.679767
-6.280604,2.247617,0.718886
-10.366728,3.031881,1.773263
-38.441187,-15.437362,5.959607
-24.122111,-12.589131,15.996776
-39.536856,-20.498390,7.770331
-12.757907,3.323661,2.321403
-27.403670,1.482735,18.175411
-31.017871,8.965188,17.809650
-31.496885,-14.275065,10.727464
-31.584472,0.488270,15.236040
-21.983571,4.264981,9.544980
-9.689672,4.268535,1.730970
-28.904931,-2.437948,14.806068
-9.158554,2.186947,0.509364
-26.840777,4.190607,16.167732
-30.824308,5.596051,23.836215
-29.429137,-19.266638,9.125939
-25.810447,3.448630,10.875211
-7.504441,2.182848,2.455022
-22.216116,-17.061062,12.453433
-8.749491,2.328560,0.770872
-20.382030,7.500852,8.117689
-17.121318,6.343142,5.529229
-20.169712,-4.019873,15.450328
-29.696551,-11.823223,11.197107
-31.338476,6.914693,18.197551
-25.285785,-5.687360,10.394040
-26.507666,-19.581595,14.748224
-23.915367,-14.626189,7.777288
-26.668882,-17.079638,11.392879
-36.752190,-19.952747,8.102265
-28.519926,-2.465984,17.453979
-29.603818,-0.077654,10.731564
-10.648306,2.352752,0.719985
-20.950007,-9.591708,19.192503
-21.997002,4.337376,9.098758
-15.884232,4.984311,5.381347
-8.860427,2.585083,1.255403
-20.094368,8.907040,6.213806
-23.690901,10.733982,11.439072
-31.560163,7.344334,18.162916
-27.686035,-1.127761,21.116350
-30.454936,-12.673356,10.832020
-15.209583,4.671556,4.706922
-10.334329,2.546515,1.429010
-9.605464,2.362538,0.418842
-16.810649,3.484444,2.811338
-27.854870,-2.814295,11.304210
-25.769398,1.633655,16.928187
-23.128996,1.876321,6.986522
-23.131644,-3.572800,6.311520
-10.848838,2.540567,-0.388383
-8.738332,2.338632,0.945365
-26.357070,-2.979562,15.259767
-19.434155,5.818630,7.820354
-24.830823,1.316802,15.279325
-33.785434,-17.557902,8.902610
-55.954767,-25.212425,9.669997
-14.023006,1.222497,-0.018369
-26.688077,-3.440711,13.235197
-25.210152,-15.676425,7.622973
-63.571031,-31.732532,11.330614
-8.094691,2.794734,1.170401
-48.481129,2.896272,24.576320
-27.975101,-0.353195,20.125775
-15.105633,3.086722,2.054702
-13.047655,4.726848,2.870526
-28.842489,-15.972065,13.762034
-12.603660,4.224183,3.078159
-25.108602,-0.943411,20.255827
-62.498729,-29.243736,10.745037
-28.176939,-15.576143,10.814032
-14.400766,3.152367,2.030027
-24.972698,-14.786462,7.552448
-29.046335,-21.019675,9.606150
-10.803165,2.370881,-0.088145
-7.452631,2.578250,1.027591
-7.932387,2.645311,1.045682
-26.063062,-0.643896,20.412943
-9.388471,3.141475,1.697075
-42.917554,6.289479,34.411007
-28.424162,2.836290,10.491254
-49.721296,-21.977743,8.124232
-17.794062,7.951338,4.832248
-9.397057,2.685890,0.596696
-34.841642,-24.130535,6.403521
-27.238795,-0.803240,20.365899
-24.354149,0.320247,15.798549
-26.440639,-0.450618,7.696673
-9.917047,3.226281,1.804321
-12.872064,4.104359,3.428994
-30.606181,-2.011654,17.444292
-34.579520,9.339108,21.311460
-33.959383,-22.921351,7.779873
-13.844540,1.235963,-0.126769
-12.455897,3.499115,2.430995
-17.826313,6.907225,6.775179
-28.828104,0.769144,12.354834
-29.636636,-2.483681,16.238305
-8.329185,2.625578,1.099739
-21.111484,-15.878161,11.487806
-26.567710,-19.575822,4.969018
-10.032189,3.332736,1.885736
-23.745256,-12.520180,16.070647
-35.513049,3.614152,17.717140
-31.272954,-20.956683,8.820030
-14.397104,6.347672,3.255997
-15.697764,5.300691,4.841812
-21.118502,-9.720166,19.037905
-27.121359,-3.433717,13.714609
-28.085448,-2.990323,19.052987
-26.456391,-0.901210,4.498452
-9.100123,3.333104,1.548674
-25.659370,4.349244,11.106776
-16.086071,3.251076,2.362484
-14.012988,3.473582,2.646905
-41.310239,-22.595997,8.101924
-29.864114,-2.742343,17.227862
-31.319755,-21.671368,10.176212
-29.418277,-23.134785,6.557390
-9.486153,2.540216,0.472608
-46.810503,7.666983,25.271757
-17.707761,3.321906,5.874296
-24.673336,1.040388,15.242146
-25.500731,-15.947584,5.998816
-29.512698,-19.514937,6.421933
-11.191515,2.457091,0.831864
-7.866697,2.336445,0.818780
-24.714375,1.335955,9.675421
-23.841383,-5.800777,20.258657
-33.933925,1.755067,16.544340
-22.655166,-5.416218,18.723147
-26.235776,3.914774,11.241644
-22.210975,0.099590,3.736682
-28.441561,6.067986,18.700710
-15.337187,5.046272,5.354327
-29.651665,7.133656,19.008332
-27.803676,-2.639234,18.580438
-10.611815,2.573174,-0.581063
-20.416417,3.174858,5.820346
-21.018513,4.892217,10.139786
-11.897584,3.872826,2.644020
-35.214436,-18.295240,8.429964
-29.445759,-16.826761,15.206094
-29.177813,2.745664,18.845809
-26.279369,4.708810,11.749502
-24.851218,5.999814,12.582886
-18.183433,5.770751,7.174923
-17.243770,2.366689,5.186001
-12.661069,3.601511,2.796538
-27.919752,-3.606270,13.358510
-28.819982,-3.377826,13.602869
-12.892265,3.837726,3.186881
-27.882642,-1.875395,14.414221
-28.695060,-18.514035,9.885100
-23.166499,4.375953,10.252521
-9.082798,2.993459,1.597026
-23.072330,1.341703,6.305655
-16.764972,5.928806,5.171260
-35.028697,8.294182,19.385637
-9.918807,2.314048,0.001392
-33.945332,7.676151,25.530610
-18.058722,2.311788,5.551439
-7.728082,2.511180,0.920219
-26.207045,1.668012,11.830146
-31.629968,4.538691,20.474365
-33.402963,-25.357994,8.783750
-28.292340,-19.783801,11.164121
-96459.583308,35904.576319,68972.686353
-22.371172,-16.616242,8.749510
-29.130306,-2.478647,13.645296
-12.298008,2.576530,1.208734
-24.873488,2.589883,10.583259
-7.913366,2.543716,0.567249
-42.571757,-17.681362,6.377515
-16.903637,5.618095,6.610967
-21.410135,-16.021526,9.590499
-15.968247,5.057689,5.676919
-25.959524,-2.463505,13.472318
-25.391381,-13.862661,16.550563
-29.605556,3.767544,18.459577
-27.719078,7.523314,14.876056
-30.479549,6.635894,19.194541
-10.658299,1.401742,-0.134216
-27.782763,5.582050,17.355052
-24.113042,5.725661,11.854061
-34.952176,9.458890,20.746094
-27.911051,-17.903501,6.037388
-36.277636,-18.606100,7.822826
-35.260278,-25.018811,6.675811
-24.612947,-15.471747,13.905306
-7.973838,2.307280,0.918203
-23.622620,0.940165,15.177893
-8.243701,2.270736,0.902709
-23.885231,2.583031,7.879882
-32.047735,3.990933,19.025575
-28.382778,-10.235205,11.464137
-24.516012,-6.789889,10.163043
-8.265331,2.394394,1.037379
-31.832678,1.153707,14.932398
-28.438135,2.385782,17.065736
-22.153563,-1.706252,4.483227
-14.623923,4.494465,4.416625
-25.215704,-15.692556,6.793774
-10.563053,2.475703,0.200177
-10.355347,2.321161,-0.113146
-25.058434,-14.779158,6.557150
-12.339184,3.364781,2.846432
-9.379447,2.514451,0.315034
-25.534803,1.543570,15.929957
-9.200090,2.547692,1.234223
-28.930853,-5.407714,11.199480
-27.055438,2.155159,17.084409
-27.806667,0.003078,20.087712
-28.269938,4.488730,12.997369
-29.758343,-2.260220,17.073635
-38.589035,3.605929,19.981457
-28.586952,2.381282,23.735946
-36.577768,23.545115,22.451358
-22.637823,-6.549595,21.343964
-13.287871,1.475572,0.365732
-13.614622,4.335009,3.898963
-7.722257,2.656107,1.095444
-29.436425,-1.778589,8.238772
-32.340919,4.414244,18.587426
-12.465004,4.594693,2.692991
-28.696200,0.899353,21.861314
-30.578290,3.602288,20.760593
-27.558506,4.587774,16.666119
-30.033598,7.202753,16.176114
-7.847211,2.423684,0.899907
-10.312311,3.954103,1.879047
-9.826952,2.453382,0.085854
-10.293853,-2.869282,6.267914
-11.907184,3.724704,2.673831
-30.399393,-23.474641,7.579693
-28.863200,-3.203794,15.025932
-29.882233,3.116213,16.814476
-17.507392,7.682776,4.600785
-27.516831,2.511485,17.362708
-30.691778,5.769225,20.943152
-18.364218,7.857968,6.826108
-43.389672,-24.552296,8.176085
-27.971875,-1.325532,8.067706
-66.836697,-31.872601,10.657583
-12.244111,3.656868,2.703166
-29.228927,3.195451,13.587160
-10.777242,2.908924,1.759745
-27.347101,-2.001672,17.371130
-31.091270,3.121833,15.242045
-11.901580,3.167578,2.093823
-23.536978,-1.369866,4.429167
-27.269411,2.441735,9.609755
-24.750277,-15.125536,6.659936
-31.452967,3.979887,20.143429
-27.906544,1.149672,19.033304
-20.954704,-3.678272,15.866818
-27.907236,15.946531,11.386386
-25.481891,-16.279997,13.344422
-27.222215,-20.273780,4.805558
-27.765588,-1.169219,14.992660
-25.677966,-0.898222,15.625047
-27.071893,-17.199194,9.475332
-20.076753,-4.162836,15.116437
-19.077628,8.182430,6.025747
-19.335052,6.475183,7.785879
-16.635312,4.719918,5.331087
-21.604918,-5.892169,19.141907
-24.688136,3.530919,9.562564
-22.405698,-6.931218,20.986679
-10.091470,2.851164,1.630291
-32.861807,2.644780,18.333123
-26.013350,-6.372736,10.010499
-8.693287,2.621121,0.551165
-32.422477,0.831926,15.721423
-22.446677,-6.031659,20.326061
-30.675366,-20.386486,8.370526
-27.054539,-17.371791,10.805032
-24.387892,-15.130162,13.481778
-45.807300,7.198728,24.255284
-24.240248,-14.623595,13.838126
-28.537519,-16.667334,11.583773
-26.146669,-0.853061,21.702953
-21.130619,9.402687,7.917742
-14.355063,4.473661,4.235881
-33.420781,1.358195,16.306431
-27.359309,6.499264,14.462136
-23.342506,1.387472,6.602157
-28.067571,1.865194,16.928013
-32.460742,-14.479929,9.970947
-37.959415,5.119897,19.024287
-39.327495,5.263424,21.616449
-20.810596,6.035519,8.669726
-8.748221,2.486592,1.133207
-26.441596,3.090330,11.713654
-29.343276,0.408692,9.839407
-20.406063,2.359887,6.289934
-28.752909,-10.935611,12.017387
-16.383409,5.046727,6.084256
-10.830085,2.465859,0.797569
-12.057786,2.299773,0.658602
-31.864521,-14.850166,8.820813
-24.002341,-14.837555,13.675376
-19.845364,-4.332995,15.278838
-17.459096,3.431753,2.936366
-25.283826,-19.166216,14.860317
-30.393815,-20.511216,10.041610
-28.157296,2.388807,13.331790
-25.519960,-6.678028,9.989191
-26.078177,2.622905,11.490172
-29.050172,-16.290335,11.737271
-31.405116,-18.028419,17.151646
-24.951114,11.753581,11.919676
-22.774061,-16.701401,8.419218
-11.676960,4.726975,2.399213
-30.310363,-0.185372,15.454424
-26.117692,-0.569243,15.020833
-15.212175,5.649790,4.342314
-23.554239,-13.892805,13.612661
-13.173390,3.513044,3.054690
-32.868136,8.110467,23.381620
-29.861625,-17.171272,14.726183
-13.298707,3.788559,3.343412
-24.897330,2.761962,8.399368
-32.499258,7.519247,20.370612
-8.661107,2.860343,1.372346
9.349610,4.099166,-9.154900
-30.110480,-1.942890,17.743077
12.989910,1.745946,-11.331531
-7.353766,2.457205,0.613094
-27.362701,3.984134,16.569052
-82.482189,-34.584254,21.224677
-32.759739,5.383850,25.429404
-38.538738,-15.264753,3.758885
-14.052026,6.187266,3.006312
-26.002865,-14.309455,16.624511
-8.044189,2.267733,0.849351
-31.211167,-23.406241,7.022660
-34.155044,-17.247034,7.629748
-25.352640,-12.483167,15.933594
13.806701,4.771520,-13.997719
-11.468269,1.204808,-0.256878
-9.564310,2.315907,1.316759
-15.455009,5.355907,4.433278
-29.488796,2.194056,17.217014
-26.911389,-0.584144,8.147032
-16.013216,4.655862,4.959572
-30.662437,1.551197,17.226848
17.336261,7.232353,-20.177669
-18.257921,8.016686,5.177555
-28.832701,-15.390685,14.306778
-29.898408,0.541562,13.225069
-29.610446,2.745754,17.284643
-25.927340,3.012813,9.107253
-6.044263,2.225029,0.815048
-35.590617,9.106583,19.966645
-20.958067,4.230001,3.880267
-32.066840,0.189654,13.784689
-127.168371,-84.102451,100.586534
-33.990766,8.739822,21.645684
-13.946601,6.200842,2.828862
-8.972804,2.159304,1.243952
-28.449925,-2.192509,14.862357
-30.068256,-20.750712,10.160360
-27.829970,-0.312107,18.482384
-24.652098,-18.915946,14.056839
-31.650947,13.775428,21.836173
-32.624714,-15.770288,9.114254
-27.320930,-1.625010,22.957441
-8.611156,2.229791,0.916608
-33.947381,4.255607,16.787548
-36.138613,-0.311451,15.308865
-1457.146496,565.593130,142.028716
-586.999178,-239.993924,32.365640
-1374.579866,522.833079,137.987085
-475.628580,-61.655095,188.189230
-1363.035741,479.517594,140.314984
-900.851757,-162.002989,184.334275
-220.517967,-190.471920,145.163778
-218.165777,-186.297121,131.168426
-363.426728,-8.454246,267.079429
-191.555909,-153.618120,131.790912
-1349.031483,503.128409,125.719441
-462.794401,-59.474026,282.011879
-394.789216,55.793926,275.117928
-1770.491848,612.382266,109.342943
-404.711282,-62.833432,229.247279
-392.358270,6.956358,298.455572
-243.851525,-189.202617,150.848251
-240.722176,-203.567990,146.431637
-518.934132,-70.936943,185.807307
-425.736259,-72.196495,249.512036
-1493.278632,540.520998,145.093808
-457.901899,-49.973425,177.482450
-469.782591,-55.526108,278.958442
-269.074999,-233.737298,173.086104
-498.911213,-73.706275,205.738445
-267.254872,-220.231762,162.334350
-400.225433,-284.573826,62.171789
-459.222897,-309.240885,160.501548
-376.369384,16.073408,288.686429
-810.135586,-125.597255,225.418530
-253.961881,-202.141171,147.573477
-899.290980,156.337312,44.258238
-490.545059,-83.722687,206.842235
-1258.492609,399.232745,117.957238
-532.726240,-99.333654,243.856369
-346.109303,-19.498657,248.396374
-513.451622,-201.093986,189.611225
-228.434554,-194.147833,150.370383
-896.514194,257.282186,156.246005
-369.717396,58.244383,213.506459
-434.627426,-295.501320,130.409618
-296.595335,-163.988394,183.850004
-463.758332,-187.723846,4.726353
-343.341996,34.146933,222.214518
-1810.255197,648.817672,110.530665
-477.953368,-323.321186,174.073844
-434.834122,-71.033772,260.818533
-397.365679,-6.605546,268.267969
-357.898049,26.001523,239.213529
-613.951652,-441.586869,63.387690
-363.139000,30.475238,236.557510
-1461.501904,556.454862,131.953439
-495.960025,-182.455039,188.097318
-385.948654,49.827689,268.980346
-364.800767,-4.286176,272.682287
-999.168331,254.808385,114.073252
-269.719029,-153.441756,50.887678
-394.983320,60.043220,242.374679
-1350.430410,485.086434,148.844876
-516.763307,-50.953129,245.212596
-396.127367,10.573333,309.382394
-536.442593,-222.317778,195.042657
-298.402807,-31.679047,207.025837
-427.034147,-55.343860,251.048069
-404.796510,12.820594,274.731417
-471.699749,-51.181563,252.686292
-393.853312,-1.105134,264.523236
-485.487869,-56.746074,294.674169
29588.046912,-8175.575187,1708.517324
-419.964797,-294.419889,74.783817
-184.976901,-151.088187,131.518925
-524.525753,-438.063132,87.891842
-328.973222,77.881384,164.260327
-1091.200668,-176.717500,279.161443
-521.469457,-420.107076,92.199311
-381.099226,50.667106,251.476122
-220.552114,-170.934812,144.375038
-490.577939,-56.930088,238.912340
-373.882288,-6.516610,285.032123
-437.617766,40.467032,245.156190
-416.293420,-288.436974,70.606990
-391.907808,54.913962,240.480975
-288.443459,-228.834169,151.470922
-300.184691,-165.105545,181.649900
-361.132377,-242.938634,146.419181
-2813.771957,194.300140,-163.717131
-518.008443,-353.114452,140.793377
-392.019649,20.778489,267.877064
-486.273608,135.590700,150.978084
-404.537864,-232.324452,136.894833
-196.543741,-170.607399,105.130036
-248.301868,-213.183274,154.889131
-406.270757,-293.842786,68.591798
-769.473427,133.206742,23.753790
-348.684992,36.835407,269.600017
-467.409918,-47.743525,260.294452
1873.996892,-560.251292,115.479925
-1673.544385,538.677591,66.451094
-253.169041,-204.676810,150.306254
-365.953918,-275.177267,129.413980
-293.267310,-157.163911,179.006822
-356.203861,-32.634020,237.393154
-299.500430,-171.282559,140.383066
-1241.739695,413.497130,151.354533
-258.302575,-200.131847,156.209154
-356.638870,32.963202,236.073722
-398.872118,98.573129,255.064922
-840.149469,147.114100,33.120694
-397.080148,62.678410,155.370421
-243.911426,-124.915255,216.804011
-593.789403,108.091897,-15.695550
-387.924746,57.854987,255.250363
-225.396763,-76.196813,211.317104
-484.038357,-136.795040,179.659122
-472.077978,-50.287584,271.436472
-462.785559,15.019633,150.538826
908.836529,-210.833879,64.706557
-470.255481,-65.023245,179.805396
-301.081731,-200.092396,41.307363
-504.582419,-39.792038,263.873072
-1101.904880,333.967883,135.463830
-320.027152,-214.582974,165.743498
-402.589403,5.365831,317.065685
-316.709346,-201.826520,162.513419
-351.344573,-7.022054,250.289235
-386.776728,-227.486806,138.079892
-389.626174,65.601009,233.929708
-354.749008,-273.553211,119.710343
-347.362589,35.921050,219.195615
-329.130281,76.787617,157.986206
-631.900689,115.723313,-10.261787
-1020.550010,422.806935,100.180840
-349.869099,-276.372639,113.114746
-407.787712,66.362686,262.106968
-534.458988,-59.415776,252.304090
-315.443344,-183.472300,159.207506
-2469.117927,362.264433,566.554194
-355.698437,-261.102342,111.820881
-1235.165652,405.494519,106.044481
-242.665948,-69.869125,196.779081
-338.824177,-274.190497,102.726158
-1588.664508,564.475745,139.312840
-298.307896,-165.334369,65.867731
-543.636792,-142.796246,214.239912
-1254.516716,426.046730,117.392624
-1755.543751,310.080000,165.193569
-537.262837,-61.390087,340.363508
-447.182164,36.464685,257.584227
-396.018315,7.323649,267.776027
-2060.257265,757.222181,110.917918
-1156.657983,-192.240779,280.012525
-1030.234122,137.508305,244.265753
-580.885408,-256.966313,12.163292
-2749.260873,429.987055,573.414113
-1644.606701,584.763434,115.024598
-423.633353,88.728536,190.216302
-395.815840,-9.002477,262.619730
-485.066413,-46.779035,237.185488
-262.401120,-217.883870,156.562462
-501.783431,-447.019854,97.645935
-425.049569,3.111370,266.284145
-396.343011,59.628409,147.692118
-368.662205,33.043839,292.564256
-459.289633,3.038528,193.527690
-424.620417,14.417970,338.015076
-272.700298,-222.290895,158.896356
-523.011981,-47.953445,232.171814
-407.285511,82.770444,178.724761
-1152.204857,360.368112,137.504904
-448.948117,-359.888641,95.382566
-434.707853,-52.071851,233.824199
-208.762857,-158.843027,136.689312
-902.412346,267.917071,150.097795
-455.229651,31.395971,199.205587
-370.724625,-17.965450,260.218633
-379.364068,-262.637969,59.209286
-403.904741,60.628684,256.251411
-1819.095553,648.536881,91.392471
-380.351477,55.047004,228.245355
-268.981294,-214.920141,164.393596
-497.087926,-172.343510,188.139365
-429.243171,43.749974,229.406108
-369.706811,41.651751,237.978569
54.819377,-14.752762,7.337804
1361.439532,-316.773128,74.538847
-191.067096,-165.798556,111.851456
-362.801210,-290.458837,115.314790
-510.803843,35.026760,139.342400
-561.124462,-506.526151,114.500151
-494.795129,-4.711574,221.547835
-520.880869,-56.782729,321.514840
-2748.871227,421.220046,606.127683
-367.370391,-8.937814,290.309045
-377.415123,69.382475,218.591878
-422.602488,-256.241111,92.536605
-1410.710562,450.555736,111.612682
-302.092465,-167.888832,177.016787
-620.624583,66.740790,155.027685
-458.558625,-315.622942,168.912647
-267.564874,-150.093315,52.000667
-484.938885,-71.740158,305.043661
-334.509901,83.548773,170.304941
-324.717302,-231.043064,121.725981
-479.490868,-194.991750,9.510448
-283.851519,-216.567973,152.576708
-397.497682,-19.452741,268.542383
-411.625293,55.634382,314.611547
-319.541240,-163.400688,58.138213
-1448.890201,528.442863,122.175198
-401.259815,69.661883,155.335934
-193.328555,-162.035908,112.060450
-394.815661,48.867897,253.147834
-425.848516,22.279027,131.406129
-478.319270,-52.174807,240.154301
-10278.782681,889.320446,-1270.802931
-1280.910225,438.343423,131.312966
-372.059020,51.350829,214.058295
-304.242562,-149.839559,52.992088
-243.269149,-182.618384,139.190502
-529.931424,-54.461450,244.297326
-346.171524,-24.388154,252.806839
-461.447832,19.363509,148.376630
-152.557540,-113.958360,105.722800
-6578.103058,1582.169048,-120.559008
-502.970852,-131.997979,185.196279
-490.192022,-334.163597,115.419514
-1372.357052,249.159709,102.781123
-359.693719,-26.688166,267.644703
-239.068385,-200.824097,153.790248
-1188.473053,369.621235,128.304642
-244.838554,-122.847312,220.368022
-428.034618,36.959817,129.338804
-358.203664,-190.082791,94.455002
-380.552744,-338.982179,111.165876
-451.777144,193.066372,147.284228
-896.345375,269.879528,157.018951
-355.220941,-16.776975,259.769486
-365.109346,-292.527277,143.682222
-533.253152,-116.636585,279.527925
-380.984293,55.992016,261.107489
-608.610110,-92.214396,211.364739
-407.325546,-28.088232,271.847522
-699.549202,282.220228,141.335456
-372.714169,54.564274,218.183966
-401.175735,58.891549,156.801604
-389.171900,0.750768,305.048014
-4390.202336,1260.064957,-83.502303
-361.868034,18.652272,235.000892
-257.172709,-205.006145,161.822149
-331.554570,-198.062038,172.650775
-406.244455,65.565597,254.381556
-397.529453,55.156578,255.506517
-451.115585,41.463866,208.936269
-1197.335731,332.613267,136.237525
-485.194848,-80.225008,237.535865
-408.462322,-303.092655,68.716023
-440.627500,11.050583,126.618636
-576.967973,-268.679974,193.887571
-260.065111,-151.178729,47.472764
-586.802257,-245.787274,28.679992
-397.513778,-12.743938,267.749750
-378.047910,23.746187,289.731824
-402.410969,-280.379092,128.427606
-390.800180,-345.740582,120.156398
-244.950709,-190.781677,144.014265
-252.348300,-189.151122,140.953664
-469.471638,92.282302,317.191766
-255.530352,-204.627473,167.724060
-447.928575,-83.486322,239.354872
12066.604004,-2857.915801,449.477620
-341.258136,38.602498,236.520305
-436.399363,21.908772,266.112727
-377.581793,66.341142,222.201470
-347.582082,30.963671,267.295394
55.391542,-14.618392,7.787283
-386.619136,36.287263,233.481887
-3417.459454,599.805938,402.963574
-437.680879,-7.648746,121.118285
-439.834139,184.076270,140.933554
-1801.504405,690.316060,132.526040
-357.066889,22.471458,231.008014
-2421.140501,923.264482,118.088423
-452.610326,21.051284,267.885610
-2394.317165,903.288946,57.107418
-398.666862,4.529940,308.173708
-1955.229234,573.935381,67.001884
-812.036952,-524.322438,158.985249
-500.384891,-79.056037,220.767140
-375.193519,-257.654516,55.034355
-415.113548,19.414142,124.302719
-363.040505,28.375758,281.119849
-316.585990,-22.309948,222.762335
-253.355717,-201.975051,151.337136
-336.040673,-28.437111,252.739842
-199.409332,-146.485566,132.961426
-454.559098,-52.925892,253.520166
-370.650644,-203.692601,92.881339
-512.932410,-56.726264,331.345237
-421.977939,70.585865,287.495423
-3637.388162,887.801582,29.102611
-3064.886562,750.136919,52.332542
-406.353396,71.983678,256.094121
-1700.914401,586.430050,82.998159
-383.469442,2.458794,290.279362
-347.152460,-279.322974,86.823765
-479.139127,-86.781294,192.392599
-815.511368,325.978855,143.185405
-392.037948,86.286856,279.339545
-626.042649,212.558475,142.182522
-437.442027,30.854362,182.495560
-428.139234,-383.404966,111.455714
47.771956,-10.561050,6.339461
-387.713130,30.296759,306.224513
-416.552659,61.275427,167.785922
-860.967184,-128.806224,229.992436
-315.193063,-178.669914,162.922824
-441.707940,-28.187749,266.231612
-429.590631,66.484064,179.016386
-432.839532,16.193304,126.250165
-437.325162,31.382534,257.518425
-437.599030,3.219348,127.736623
-449.755177,7.432729,126.639724
-7266.180458,2169.009182,-153.765085
-1056.731281,267.081817,102.595186
-309.365859,-204.241625,153.607542
-734.011236,-662.158016,163.072593
-443.453412,34.492836,247.721570
58.910822,-14.899937,8.947704
-1935.759384,604.677809,68.242469
1468811.185035,-310752.776823,84054.366821
-319.316037,-31.316647,216.578984
-470.844222,125.809560,171.871476
-483.567584,-33.658411,298.028732
-382.068832,95.626513,238.271986
-380.627504,-208.089186,101.547423
-464.048943,-321.267844,139.053056
-1330.286903,515.406272,156.788724
-227.880047,-198.176431,159.309528
-471.242899,51.598811,192.480002
-371.587859,205.915929,142.812326
-356.660443,-237.493203,162.491906
-379.404297,-304.593061,143.330722
-1193.508636,362.404485,115.478097
-3104.451308,893.748410,25.032662
-399.161879,20.816124,317.934946
-307.210878,-28.968554,220.501036
-418.576371,26.622659,122.623666
-374.764057,76.055522,208.618075
-534.355045,-337.054556,146.528907
-461.514024,17.864830,200.902628
-5034.279270,1518.252880,-197.047777
-453.747264,46.221287,257.134966
-439.534544,26.471128,250.212411
-22362.042287,6039.912217,-1022.806006
-196.784692,-155.173834,134.306666
-252.165713,-201.338595,186.838820
-419.623078,-243.862736,137.335862
-414.764835,73.677370,267.200977
-451.939123,93.867187,304.259889
-687.879835,118.356960,13.989598
-369.114900,20.868771,245.197850
-3640.496170,1079.196685,38.556744
-492.051004,-328.705438,113.663496
-404.670771,16.806171,103.983552
-11922.860408,2851.003714,-341.833543
-376.346076,73.943154,205.433778
-462.247848,-55.138705,177.706420
-493.950440,-322.155384,177.932433
-308.066699,-173.887626,163.695760
-364.516955,-39.353074,244.584931
-393.403022,44.030389,236.515696
-436.562687,-302.679026,87.042073
-550.744038,-378.625669,136.511402
-442.024695,1.891477,114.770371
-1882.300890,542.208892,78.676892
-461.247369,14.041696,267.382355
-437.863861,-10.814766,106.964325
-443.564169,-309.438731,156.661392
-385.945015,29.060923,236.414068
-390.550188,50.181191,245.096943
-492.042209,-10.373326,220.198883
-402.151699,77.711286,250.344938
-275.098876,-147.708574,51.886677
-345.251648,-251.436933,124.921391
-498.450482,-47.764044,317.273812
-390.985058,14.285639,95.242718
-434.600779,35.688002,259.841747
-397.298587,59.853899,202.811944
-425.718029,-41.643224,278.695979
-457.264740,-54.379632,232.669625
62.813893,-18.068513,6.362508
-400.469461,87.473001,238.818446
-468.688871,131.929502,165.995153
-558.883936,191.982552,140.927680
-191.964854,-149.556448,133.008347
-472.600735,23.643926,211.723930
-419.617730,42.709958,218.756937
-367.887888,18.364598,231.906414
-346.768638,-270.793138,108.795314
-376.892984,55.971632,210.873971
-567.787295,233.589109,159.694896
-5127.187352,1392.462413,-108.511118
-387.200034,-275.435721,131.652881
-507.900365,-78.091650,187.580932
-546.507045,-234.966391,20.487883
-401.773545,90.069737,262.611112
-874.259483,256.082782,174.455931
-794.876750,211.574409,146.679109
-470.216723,167.751799,156.040605
-880.637144,279.655418,148.764548
-351.430851,-228.362097,189.035213
-927.674410,239.406936,131.186274
-412.117372,53.484293,163.946655
-453.132329,24.853436,197.583275
-271.304862,-220.468629,175.256078
-415.106061,-284.940941,75.317292
-396.404250,46.225193,232.974309
-287.393129,-229.415122,143.402868
-5967.103197,1690.428501,-281.251518
-807.238117,-146.832940,291.317069
-341.672813,-17.745791,261.990739
-548.637110,-128.084463,199.805863
-483.255464,-50.016313,247.745461
-494.342980,-364.864329,55.579270
-476.345629,-6.084348,126.654493
-281.085218,-222.024175,269.474248
-514.821300,-51.234538,321.327498
-433.877403,12.596768,185.307213
-1526.172507,483.559989,107.156733
-982.136062,297.097415,146.907784
-586.571705,-267.194268,198.996662
-271.328493,-206.526807,173.044999
-11464.213592,1085.500415,-1623.333876
-270.700832,-210.878739,199.922517
-353.244728,-13.310710,269.509366
-616.167636,250.348419,139.996520
-8625.051479,663.541593,-865.207654
-464.354340,86.110506,314.906253
-433.394039,-80.680113,239.588245
-319.953761,-186.627059,122.697350
-447.354959,54.131684,180.608481
-1881.574327,576.139892,84.555022
-436.607000,-19.871131,110.043336
-390.333922,70.603537,237.534592
-505.329626,15.997553,178.592017
-1035.094797,339.291961,151.235610
-558.934170,-410.681599,68.714421
-594.086810,-127.809252,320.031784
-997.456769,261.560079,133.374488
-470.060837,-9.054983,156.931747
-488.944313,-318.944413,167.241492
-517.459304,-427.058043,88.324686
-577.295059,236.054171,152.468558
-320.720037,81.874102,169.314683
-430.097014,-21.978848,112.166370
-557.745046,228.751115,142.034717
-452.472517,-359.027458,79.358358
-1416.126805,411.553448,104.436605
-458.292785,-15.412857,125.519421
-404.583453,70.032740,171.610669
-359.063617,-245.420142,143.528494
-454.607595,45.491714,206.683485
-2213.040323,550.026095,72.423279
-444.317911,18.870773,257.675769
-488.047787,-335.721568,109.678933
-2078.630789,127.930101,-149.517760
-1816.082657,449.559147,91.025736
-366.894590,-23.580064,279.046407
-608.406389,-384.366090,135.753087
-1260.596701,383.655326,109.200849
-395.732393,-20.067210,258.542916
-495.199458,-0.479090,217.494476
-420.012263,-54.884529,234.585873
-254.141214,-181.814710,140.633045
-344.602727,-243.867700,133.465788
-425.799454,-8.008335,126.661813
-1130.091820,344.258534,129.242632
-411.279771,6.630478,110.476019
-247.463698,-187.635686,136.491968
-846.818689,265.697736,163.997511
-487.348138,36.353029,140.570040
-386.748466,-13.114206,251.939978
-634.857820,75.627690,157.153323
-311.011321,134.554274,131.380142
-359.877347,61.936502,199.501560
-509.655547,-241.006435,164.573766
-18626.233100,3265.757041,2605.511333
-503.671302,-42.045298,307.942004
-403.186631,70.857607,162.616870
-324.492085,-26.771914,223.451386
-975.088472,228.630016,116.665688
-3255.768038,888.994456,36.315086
-514.356178,-156.159738,191.297292
-4118.713599,992.955100,-8.327327
-362.394409,-276.163230,56.007316
-3905.401947,1209.275427,45.015657
-2218.074110,607.376708,69.934752
-319.334346,178.214716,132.735174
-511.085237,-111.952842,187.053365
-427.569631,18.272495,120.989026
-934.465886,367.484520,131.132209
-404.141157,-56.897844,228.586200
-330.141288,-209.760386,174.159291
-448.968275,-45.352968,179.049821
-997.087219,421.830610,114.434674
-428.582180,-349.704891,103.026887
-1730.642614,686.007705,122.540448
-529.438672,-48.543929,242.996121
46.708090,-9.920441,6.379919
-7150.578967,2207.302801,-8.011958
-1566.527978,494.741067,83.523340
-297.689016,-234.542480,78.665516
-464.353534,-29.081084,126.072740
57.117124,-16.002355,6.865627
-637.192355,-549.558212,122.162617
-416.972267,94.476545,285.579471
-459.362682,-43.624443,248.264554
53.997509,-12.620620,8.224465
-1994.846566,497.182128,83.702802
-440.418276,10.067931,136.908899
-790.046342,-510.542526,176.129720
-487.607014,-48.474076,292.185034
45.003299,-10.456851,7.769344
-400.749333,58.944476,210.469134
-397.948002,5.502109,257.345805
-362.349974,76.845879,195.313681
-489.642415,-334.018067,139.601917
-419.293427,50.981434,222.667228
-1630.871014,478.959970,93.059798
-378.401411,84.600987,221.682039
-1715.762524,436.832562,104.570998
-499.822549,139.798745,149.204469
-231.194199,-67.476248,197.356818
-1625.034492,496.587274,95.328721
-271.887579,-148.023573,53.615619
-4926.996395,1908.497986,472.639716
3725.315428,1537.794775,-195.071742
-4852.610237,1841.624283,479.470028
-39430.667243,-5266.358352,15454.479594
-5078.955264,1782.337283,514.850829
1905.110498,349.015207,-384.842572
5127.775156,4476.661927,-3339.670546
8714.201193,7523.284004,-5183.998070
-598.653677,-15.191268,437.471856
5521.252028,4486.814505,-3761.286755
-4980.980220,1853.302791,456.185691
-1049.401955,-137.525221,635.625341
-724.955886,100.867763,501.688685
-10699.081997,3692.441131,644.428973
-1926.367613,-306.521938,1083.042094
-546.546736,8.883201,413.563091
6813.085480,5341.129977,-4169.232009
11296.044759,9646.897617,-6802.925919
41304.370114,5799.705148,-14650.202705
-1790.361131,-310.060551,1042.027811
-4794.445291,1731.740931,458.665166
-23814.338787,-2694.455172,9137.147165
-1072.988329,-129.509087,633.252372
7286.299147,6383.183137,-4642.353299
-10312.429189,-1561.219708,4215.941602
8111.468787,6744.232419,-4877.186919
2097288.204360,1501343.597672,-317083.081960
79554.142786,53885.833282,-27454.017358
-542.948087,22.310470,414.248619
1348.086289,214.496659,-371.387196
23739.455498,19077.018485,-13646.296828
-25155.276865,4312.649791,1165.795173
-4385.581560,-764.192105,1834.887918
-15398.071630,4867.234886,1415.602700
-1829.309880,-346.143321,832.632588
-669.181707,-39.501506,477.394255
1593.945348,631.943129,-583.512324
3604.398599,3096.130734,-2347.584242
-5357.907227,1529.927386,922.568988
-1257.910818,193.886074,720.070859
-12024.578296,-8224.030625,3553.164959
180855.928813,101084.514816,-111082.537076
3265.027005,1337.158758,-21.593937
-796.134442,76.756630,511.497749
-10452.056228,3738.220268,621.624990
-94124.155100,-64021.183905,33871.421164
-1364.161287,-227.218894,812.954354
-771.755239,-14.686063,517.666407
-730.179355,51.104322,484.669495
-40541.717051,-29293.950714,4116.056218
-752.769855,61.153350,486.873147
-4786.936543,1818.799556,424.830888
1592.364323,593.578081,-598.451588
-736.444935,93.382744,509.697438
-563.190668,-7.672005,418.651772
-13518.547003,3428.111462,1513.811688
2149.810784,1241.029149,-395.082907
-964.884386,144.019943,587.597905
-4262.318924,1527.483565,463.211564
-3591.027639,-365.655718,1691.129270
-524.438976,13.318536,407.508721
1860.110555,779.347092,-670.814781
-777.384343,-85.500304,535.646344
-1187.415992,-157.505940,693.402530
-718.928551,21.240101,484.785713
-1795.932951,-200.472660,955.197188
-755.956774,-3.922412,504.442623
-989.391457,-117.859749,597.027482
-4401.339300,1217.111466,-255.317032
-20136.070102,-14204.700355,3499.490145
4713.122201,3902.437730,-3318.838008
-48081.638903,-40330.795688,7886.906910
-2188.792198,509.232577,1083.010539
1397.272975,231.194619,-353.508559
-20962.424902,-16962.155265,3629.176946
-755.647607,98.604750,495.039822
3934.176742,3086.037878,-2550.318756
-3528.085468,-421.563728,1705.567921
-529.906766,-10.056847,401.827327
-1157.350557,103.789165,642.996541
-134997.358157,-94147.195811,22322.089677
-1035.167312,142.038981,630.383598
34132.190262,27301.811872,-17713.504835
-15522.493297,-8627.752455,9306.371378
-7141.694609,-4838.497406,2859.155618
-1047.852407,72.479174,-62.744370
-18929.641955,-12967.250738,5065.506379
-712.904424,36.199938,483.964234
-10659.706531,2941.429949,3275.648604
-17992.070989,-10409.663571,6000.798563
16903.488681,14841.587070,-8892.559862
12274.622396,10637.632829,-7583.810933
-35966.221975,-26179.822700,5918.380625
15388.986097,-2619.919627,-425.609684
-645.524012,66.698216,496.285551
-1440.684617,-151.366299,796.701217
-9061.012951,2715.765587,-552.859507
-9419.751478,3024.669415,359.540395
13909.518265,11352.555330,-8170.353006
-66045.040978,-49996.625045,23018.363228
-17767.311558,-9627.478161,10745.231465
-868.371639,-82.350389,574.825248
-23291.656573,-13458.474904,10782.936725
-7788.895033,2585.352992,935.579843
6992.127600,5470.817723,-4184.488776
-745.548594,66.872396,490.014285
-3666.476800,892.816011,2324.666559
-84059.518764,14502.902814,3060.227563
-5699.632573,877.699919,2206.655570
37241.405165,19343.204777,-32866.453743
-825690.426355,147505.216934,-24943.804701
-787.921580,115.566984,514.737405
-16648.510485,-5752.399490,15508.611930
1611.080567,463.111360,-592.226841
-1216.215055,-132.778204,694.732246
-21785.729607,623.620180,7000.964671
-1665.087541,389.325904,-121.980006
5200014.017211,739973.736287,-1969118.552130
15482.429222,10394.348033,-2057.686266
-1830.074255,-149.570885,950.118185
-10054.168376,3034.882922,1217.342572
-29509.589318,-19953.725209,15122.450883
-508.888775,6.209482,398.785414
-67972.137139,-43705.736189,34506.760228
-637.448126,-14.316811,451.355335
-9430.318288,-5588.163621,3319.646165
-972.907790,161.092235,579.628055
-41081.999160,-31894.782574,13651.246780
-942.710627,94.378595,590.357948
-2305.943318,528.521336,1096.722095
259500.896563,-46680.876807,5178.171594
8327.069039,-3437.160565,-800.559879
-15855.705467,-12607.559393,5041.267852
-796.934664,127.866172,508.596202
-3731.659696,-426.589675,1748.745707
-25402.985707,-14917.334096,12677.259035
1323.281552,-191.172802,-301.177780
52212.793781,38611.026046,-16165.154386
-14701.431379,4809.574177,1236.052685
-5578.361872,-1643.283361,4491.676213
-19108.781302,-15568.257562,5691.787426
-5863.164763,2078.812877,505.424420
1954.865999,1098.739004,-422.659657
1449.414271,387.268971,-565.984882
-8025.278198,2717.044880,737.338305
-49313.343773,8630.163355,4533.438742
-934.447472,-108.462786,588.721519
-1057.423434,83.495700,604.264933
-711.088752,11.584572,477.712853
-10097.565368,3704.390766,527.827616
1163.014482,197.567731,-278.180388
1118.463966,-145.672042,-262.342721
4665.495764,2081.450798,-85.827200
1802.750819,-278.512610,-373.078579
-9171.493546,3253.660760,627.099512
-2832.564692,583.741072,1261.070013
-812.194631,-20.532231,535.352857
-3342.709764,-333.775131,1621.828680
10208.899520,8553.941200,-6029.128685
-100609.549439,-90032.320538,19242.866011
-825.534589,4.128404,513.464508
-22808.564564,3339.663283,8405.097333
-598.270542,52.490165,472.181000
-2320.972693,7.602898,968.823854
-507.081331,16.749855,401.650799
-45267.188918,-37213.500621,26099.099246
-2989.365902,-283.215032,1316.415950
-3346.996564,667.952751,1454.488566
-8837.442950,2753.731885,1038.594629
-12622.519479,-10168.795829,2626.121553
